ply
format ascii 1.0
element vertex 2506
property float x
property float y
property float z
end_header
-0.365 -0.411 2.383
-0.349 -0.409 2.370
-0.334 -0.410 2.372
-0.319 -0.410 2.370
-0.304 -0.410 2.368
-0.289 -0.410 2.367
-0.275 -0.411 2.368
-0.260 -0.411 2.369
-0.245 -0.412 2.369
-0.230 -0.411 2.366
-0.216 -0.412 2.369
-0.201 -0.413 2.369
-0.186 -0.414 2.373
-0.172 -0.415 2.378
-0.157 -0.414 2.368
-0.143 -0.416 2.382
-0.128 -0.416 2.379
-0.113 -0.418 2.387
-0.098 -0.419 2.388
-0.084 -0.420 2.393
-0.069 -0.419 2.384
-0.053 -0.417 2.371
-0.039 -0.418 2.379
-0.024 -0.420 2.387
-0.009 -0.423 2.401
0.006 -0.425 2.408
0.020 -0.419 2.376
0.035 -0.421 2.383
0.050 -0.424 2.397
0.065 -0.424 2.397
0.080 -0.426 2.405
0.096 -0.427 2.408
0.110 -0.427 2.406
0.126 -0.428 2.411
0.141 -0.430 2.416
0.156 -0.430 2.416
0.171 -0.430 2.413
0.186 -0.430 2.411
0.201 -0.431 2.413
0.217 -0.432 2.422
0.232 -0.433 2.423
0.247 -0.434 2.426
0.263 -0.435 2.430
0.278 -0.436 2.435
0.294 -0.438 2.442
0.308 -0.437 2.433
0.324 -0.437 2.433
0.339 -0.438 2.433
0.355 -0.439 2.439
0.370 -0.440 2.443
0.383 -0.438 2.427
0.400 -0.439 2.436
0.415 -0.441 2.440
0.433 -0.443 2.453
0.448 -0.444 2.453
0.461 -0.442 2.442
0.476 -0.442 2.439
0.492 -0.443 2.442
0.510 -0.446 2.456
0.522 -0.443 2.439
0.538 -0.445 2.445
0.554 -0.445 2.448
0.570 -0.447 2.454
0.582 -0.445 2.440
0.599 -0.446 2.447
0.614 -0.447 2.447
0.630 -0.447 2.448
0.648 -0.450 2.459
0.663 -0.450 2.456
0.676 -0.449 2.451
0.693 -0.451 2.457
0.707 -0.450 2.451
0.723 -0.451 2.454
0.741 -0.453 2.463
0.758 -0.454 2.470
0.770 -0.453 2.460
0.782 -0.451 2.448
0.798 -0.452 2.450
0.814 -0.453 2.454
0.832 -0.454 2.460
0.850 -0.457 2.470
0.865 -0.457 2.467
0.880 -0.457 2.467
0.895 -0.457 2.467
0.912 -0.458 2.470
0.925 -0.458 2.464
0.940 -0.458 2.463
0.956 -0.459 2.466
0.974 -0.460 2.473
0.989 -0.460 2.471
1.003 -0.460 2.468
1.018 -0.460 2.468
1.035 -0.461 2.471
1.055 -0.464 2.483
1.082 -0.469 2.509
1.099 -0.470 2.512
1.122 -0.474 2.530
0.000 0.000 0.000
0.000 0.000 0.000
1.245 -0.506 2.694
1.253 -0.503 2.675
0.000 0.000 0.000
1.286 -0.504 2.675
1.303 -0.504 2.675
1.319 -0.505 2.675
1.336 -0.505 2.675
0.000 0.000 0.000
0.000 0.000 0.000
1.421 -0.519 2.742
1.434 -0.518 2.736
1.460 -0.522 2.752
1.479 -0.523 2.756
1.469 -0.514 2.706
1.466 -0.507 2.670
1.479 -0.507 2.664
1.492 -0.506 2.658
1.509 -0.506 2.658
1.524 -0.506 2.656
1.536 -0.505 2.649
1.550 -0.505 2.645
1.563 -0.504 2.639
1.578 -0.504 2.637
1.596 -0.505 2.639
1.617 -0.507 2.647
1.640 -0.509 2.656
1.656 -0.510 2.656
1.673 -0.510 2.656
1.696 -0.513 2.667
1.715 -0.514 2.671
1.732 -0.514 2.671
1.748 -0.515 2.671
1.765 -0.515 2.671
1.781 -0.515 2.671
1.795 -0.515 2.667
1.810 -0.515 2.665
1.826 -0.515 2.664
1.848 -0.517 2.671
1.864 -0.518 2.672
1.878 -0.517 2.667
1.894 -0.518 2.667
1.914 -0.519 2.672
1.934 -0.520 2.677
1.951 -0.521 2.677
1.965 -0.520 2.673
1.984 -0.522 2.677
1.992 -0.520 2.666
1.996 -0.517 2.648
2.003 -0.515 2.636
2.006 -0.512 2.618
2.006 -0.508 2.598
2.006 -0.504 2.577
1.996 -0.498 2.544
1.996 -0.495 2.524
1.993 -0.491 2.501
1.992 -0.487 2.480
1.999 -0.485 2.470
2.007 -0.484 2.461
2.012 -0.482 2.448
2.026 -0.482 2.447
2.029 -0.480 2.433
2.031 -0.477 2.417
2.032 -0.474 2.401
2.014 -0.467 2.362
2.001 -0.461 2.329
2.008 -0.459 2.321
2.012 -0.457 2.310
2.012 -0.455 2.293
2.005 -0.450 2.269
2.005 -0.447 2.253
2.014 -0.447 2.248
2.016 -0.444 2.235
2.023 -0.443 2.227
2.030 -0.442 2.220
2.021 -0.438 2.195
2.020 -0.435 2.179
2.027 -0.434 2.173
2.019 -0.429 2.150
2.031 -0.429 2.148
2.024 -0.426 2.127
2.017 -0.422 2.106
2.024 -0.421 2.100
2.022 -0.418 2.084
2.030 -0.417 2.079
2.022 -0.413 2.058
2.020 -0.411 2.043
2.030 -0.410 2.041
0.000 0.000 0.000
0.000 0.000 0.000
0.000 0.000 0.000
0.000 0.000 0.000
0.000 0.000 0.000
0.000 0.000 0.000
0.000 0.000 0.000
0.000 0.000 0.000
0.000 0.000 0.000
0.000 0.000 0.000
0.000 0.000 0.000
0.000 0.000 0.000
0.000 0.000 0.000
0.000 0.000 0.000
0.000 0.000 0.000
-2.119 -0.349 2.363
-2.164 -0.360 2.429
-2.136 -0.358 2.415
-2.111 -0.357 2.404
-2.099 -0.357 2.407
0.000 0.000 0.000
0.000 0.000 0.000
0.000 0.000 0.000
0.000 0.000 0.000
0.000 0.000 0.000
0.000 0.000 0.000
0.000 0.000 0.000
0.000 0.000 0.000
0.000 0.000 0.000
0.000 0.000 0.000
0.000 0.000 0.000
0.000 0.000 0.000
-0.590 -0.112 0.746
0.000 0.000 0.000
0.000 0.000 0.000
0.000 0.000 0.000
0.000 0.000 0.000
0.000 0.000 0.000
0.000 0.000 0.000
0.000 0.000 0.000
0.000 0.000 0.000
-0.645 -0.133 0.878
-0.640 -0.134 0.879
-0.642 -0.135 0.889
-0.650 -0.138 0.908
-0.651 -0.140 0.918
-0.655 -0.142 0.932
-0.653 -0.143 0.937
-0.651 -0.144 0.943
-0.647 -0.145 0.946
-0.643 -0.145 0.948
-0.638 -0.146 0.950
-0.635 -0.147 0.954
-0.633 -0.148 0.961
-0.629 -0.148 0.964
-0.624 -0.149 0.965
-0.622 -0.150 0.971
-0.621 -0.151 0.979
-0.618 -0.152 0.984
-0.616 -0.153 0.991
-0.625 -0.157 1.015
-0.625 -0.159 1.026
-0.623 -0.160 1.033
-0.619 -0.161 1.038
-0.618 -0.163 1.046
-0.617 -0.164 1.056
-0.615 -0.166 1.065
-0.612 -0.167 1.070
-0.606 -0.167 1.072
-0.600 -0.168 1.073
0.000 0.000 0.000
0.000 0.000 0.000
0.000 0.000 0.000
0.000 0.000 0.000
-0.610 -0.182 1.155
0.000 0.000 0.000
0.000 0.000 0.000
0.000 0.000 0.000
0.000 0.000 0.000
0.000 0.000 0.000
0.000 0.000 0.000
0.000 0.000 0.000
-0.610 -0.202 1.276
-0.605 -0.203 1.283
-0.597 -0.204 1.283
0.000 0.000 0.000
0.000 0.000 0.000
0.000 0.000 0.000
0.000 0.000 0.000
-0.602 -0.221 1.386
-0.596 -0.222 1.393
-0.592 -0.224 1.404
-0.584 -0.225 1.407
-0.579 -0.227 1.416
-0.573 -0.228 1.422
-0.566 -0.229 1.427
-0.559 -0.230 1.432
-0.553 -0.231 1.440
-0.555 -0.236 1.468
-0.548 -0.237 1.474
-0.544 -0.240 1.490
-0.539 -0.242 1.502
-0.537 -0.246 1.523
-0.534 -0.249 1.540
-0.526 -0.250 1.545
-0.516 -0.250 1.545
-0.509 -0.251 1.551
0.000 0.000 0.000
0.000 0.000 0.000
-0.507 -0.266 1.638
0.000 0.000 0.000
0.000 0.000 0.000
-0.677 -0.380 2.331
-0.667 -0.383 2.347
-0.654 -0.384 2.351
-0.643 -0.387 2.365
-0.621 -0.383 2.338
-0.608 -0.384 2.346
-0.596 -0.386 2.354
-0.583 -0.388 2.362
-0.567 -0.387 2.356
-0.550 -0.386 2.346
-0.536 -0.387 2.349
-0.522 -0.388 2.354
-0.509 -0.389 2.359
-0.492 -0.388 2.349
-0.476 -0.387 2.343
-0.462 -0.388 2.347
-0.451 -0.391 2.363
-0.436 -0.391 2.363
-0.422 -0.392 2.366
-0.409 -0.394 2.376
-0.395 -0.396 2.382
-0.383 -0.399 2.399
-0.368 -0.399 2.399
-0.349 -0.395 2.373
-0.334 -0.395 2.369
-0.319 -0.396 2.370
-0.303 -0.395 2.363
-0.289 -0.396 2.369
-0.274 -0.396 2.366
-0.259 -0.397 2.367
-0.244 -0.396 2.364
-0.230 -0.398 2.370
-0.215 -0.398 2.367
-0.201 -0.398 2.367
-0.186 -0.399 2.371
-0.171 -0.400 2.373
-0.156 -0.399 2.364
-0.142 -0.400 2.371
-0.127 -0.401 2.376
-0.113 -0.403 2.383
-0.098 -0.404 2.386
-0.084 -0.406 2.398
-0.069 -0.406 2.393
-0.053 -0.402 2.370
-0.038 -0.404 2.378
-0.024 -0.406 2.385
-0.009 -0.407 2.392
0.006 -0.408 2.395
0.021 -0.404 2.371
0.035 -0.405 2.372
0.051 -0.408 2.389
0.066 -0.409 2.391
0.081 -0.409 2.392
0.096 -0.411 2.401
0.111 -0.411 2.400
0.126 -0.412 2.404
0.141 -0.414 2.413
0.157 -0.415 2.416
0.171 -0.415 2.413
0.186 -0.415 2.407
0.201 -0.415 2.409
0.217 -0.417 2.420
0.232 -0.419 2.424
0.248 -0.420 2.428
0.263 -0.420 2.430
0.279 -0.421 2.434
0.295 -0.423 2.440
0.309 -0.422 2.433
0.324 -0.422 2.430
0.339 -0.423 2.434
0.355 -0.424 2.438
0.371 -0.425 2.441
0.383 -0.422 2.423
0.400 -0.424 2.432
0.416 -0.426 2.440
0.432 -0.427 2.445
0.448 -0.428 2.448
0.461 -0.426 2.435
0.475 -0.426 2.432
0.492 -0.428 2.441
0.510 -0.430 2.452
0.522 -0.428 2.437
0.538 -0.430 2.443
0.554 -0.430 2.446
0.570 -0.431 2.449
0.583 -0.430 2.441
0.600 -0.431 2.446
0.615 -0.432 2.445
0.630 -0.432 2.445
0.648 -0.434 2.454
0.662 -0.434 2.452
0.678 -0.434 2.452
0.693 -0.435 2.452
0.707 -0.435 2.449
0.723 -0.436 2.452
0.741 -0.437 2.461
0.757 -0.438 2.464
0.768 -0.436 2.449
0.782 -0.436 2.445
0.798 -0.437 2.448
0.816 -0.438 2.455
0.832 -0.439 2.458
0.849 -0.440 2.462
0.865 -0.441 2.465
0.880 -0.442 2.465
0.896 -0.442 2.465
0.912 -0.443 2.468
0.926 -0.443 2.465
0.942 -0.443 2.465
0.958 -0.444 2.469
0.975 -0.445 2.472
0.990 -0.445 2.471
1.003 -0.445 2.466
1.017 -0.445 2.463
1.035 -0.446 2.468
1.056 -0.449 2.481
1.082 -0.454 2.507
1.101 -0.456 2.515
1.136 -0.464 2.558
1.162 -0.468 2.579
0.000 0.000 0.000
1.246 -0.489 2.692
1.253 -0.486 2.673
1.261 -0.483 2.653
1.287 -0.487 2.673
1.303 -0.488 2.673
1.320 -0.488 2.673
1.342 -0.491 2.684
1.297 -0.469 2.561
1.405 -0.502 2.742
1.422 -0.502 2.742
1.435 -0.501 2.734
1.460 -0.505 2.749
1.478 -0.505 2.752
1.468 -0.497 2.702
1.467 -0.491 2.668
1.481 -0.491 2.664
1.496 -0.490 2.661
1.512 -0.491 2.661
1.528 -0.491 2.659
1.539 -0.490 2.650
1.555 -0.490 2.650
1.569 -0.489 2.645
1.585 -0.490 2.645
1.604 -0.491 2.649
1.625 -0.493 2.657
1.643 -0.494 2.659
1.660 -0.494 2.659
1.678 -0.495 2.663
1.699 -0.497 2.669
1.715 -0.497 2.669
1.732 -0.498 2.669
1.749 -0.498 2.669
1.765 -0.499 2.669
1.782 -0.499 2.669
1.794 -0.498 2.663
1.812 -0.499 2.665
1.829 -0.499 2.665
1.845 -0.500 2.665
1.862 -0.500 2.665
1.873 -0.499 2.658
1.898 -0.502 2.670
1.922 -0.504 2.680
1.939 -0.505 2.680
1.955 -0.505 2.680
1.968 -0.505 2.675
1.974 -0.502 2.660
1.978 -0.500 2.644
1.990 -0.499 2.638
2.003 -0.498 2.634
2.006 -0.496 2.616
1.994 -0.489 2.580
1.980 -0.482 2.542
1.987 -0.481 2.531
1.993 -0.479 2.518
1.988 -0.474 2.493
1.996 -0.473 2.483
2.003 -0.471 2.472
1.994 -0.466 2.443
1.998 -0.464 2.430
2.014 -0.464 2.431
2.025 -0.464 2.426
2.032 -0.462 2.416
2.019 -0.456 2.383
2.007 -0.450 2.351
1.997 -0.445 2.324
2.003 -0.444 2.313
2.009 -0.442 2.304
2.007 -0.439 2.285
2.000 -0.435 2.262
2.005 -0.433 2.251
2.015 -0.433 2.246
2.015 -0.430 2.232
2.024 -0.429 2.226
2.032 -0.429 2.220
2.028 -0.425 2.201
2.021 -0.421 2.178
2.030 -0.421 2.173
2.020 -0.416 2.148
2.031 -0.416 2.146
2.020 -0.411 2.121
2.017 -0.409 2.104
2.024 -0.408 2.098
2.024 -0.405 2.084
2.026 -0.404 2.073
2.029 -0.402 2.063
2.027 -0.399 2.048
2.037 -0.399 2.045
0.000 0.000 0.000
0.000 0.000 0.000
0.000 0.000 0.000
0.000 0.000 0.000
0.000 0.000 0.000
0.000 0.000 0.000
0.000 0.000 0.000
0.000 0.000 0.000
0.000 0.000 0.000
0.000 0.000 0.000
0.000 0.000 0.000
0.000 0.000 0.000
0.000 0.000 0.000
0.000 0.000 0.000
0.000 0.000 0.000
0.000 0.000 0.000
-2.194 -0.349 2.461
-2.173 -0.349 2.455
-2.142 -0.347 2.437
-2.129 -0.348 2.440
-2.097 -0.345 2.421
0.000 0.000 0.000
-2.132 -0.357 2.498
-2.132 -0.360 2.515
0.000 0.000 0.000
0.000 0.000 0.000
0.000 0.000 0.000
0.000 0.000 0.000
0.000 0.000 0.000
0.000 0.000 0.000
0.000 0.000 0.000
0.000 0.000 0.000
0.000 0.000 0.000
0.000 0.000 0.000
0.000 0.000 0.000
0.000 0.000 0.000
0.000 0.000 0.000
-0.640 -0.122 0.842
-0.630 -0.122 0.836
0.000 0.000 0.000
-0.649 -0.128 0.875
-0.644 -0.128 0.876
-0.639 -0.128 0.877
-0.646 -0.131 0.894
-0.649 -0.133 0.907
-0.650 -0.134 0.915
-0.655 -0.137 0.931
-0.653 -0.137 0.936
-0.651 -0.138 0.942
-0.648 -0.139 0.946
-0.643 -0.140 0.947
-0.637 -0.140 0.948
-0.634 -0.140 0.952
-0.632 -0.142 0.958
-0.628 -0.142 0.961
-0.625 -0.143 0.966
0.000 0.000 0.000
-0.621 -0.145 0.978
-0.617 -0.146 0.982
0.000 0.000 0.000
0.000 0.000 0.000
-0.621 -0.152 1.019
-0.621 -0.154 1.030
-0.616 -0.154 1.032
-0.611 -0.155 1.034
-0.613 -0.157 1.049
-0.615 -0.159 1.063
-0.614 -0.161 1.073
-0.608 -0.161 1.075
0.000 0.000 0.000
0.000 0.000 0.000
0.000 0.000 0.000
-0.614 -0.171 1.135
-0.611 -0.173 1.144
-0.609 -0.174 1.152
-0.601 -0.174 1.153
0.000 0.000 0.000
0.000 0.000 0.000
0.000 0.000 0.000
0.000 0.000 0.000
0.000 0.000 0.000
0.000 0.000 0.000
-1.125 -0.358 2.353
0.000 0.000 0.000
0.000 0.000 0.000
0.000 0.000 0.000
0.000 0.000 0.000
0.000 0.000 0.000
0.000 0.000 0.000
-0.611 -0.216 1.406
-0.602 -0.216 1.406
-0.593 -0.216 1.406
-0.585 -0.217 1.408
-0.581 -0.218 1.418
-0.574 -0.219 1.423
-0.567 -0.220 1.429
-0.560 -0.221 1.433
-0.553 -0.223 1.440
-0.554 -0.227 1.465
-0.548 -0.228 1.474
-0.544 -0.231 1.487
-0.538 -0.232 1.497
-0.536 -0.236 1.517
-0.529 -0.237 1.527
-0.524 -0.240 1.540
-0.516 -0.240 1.542
-0.508 -0.242 1.549
-0.498 -0.242 1.547
-0.513 -0.254 1.624
-0.504 -0.255 1.631
0.000 0.000 0.000
-0.659 -0.348 2.219
-0.677 -0.366 2.329
-0.665 -0.368 2.340
-0.653 -0.369 2.349
-0.642 -0.372 2.360
-0.621 -0.369 2.340
-0.609 -0.371 2.349
-0.595 -0.371 2.352
-0.582 -0.372 2.356
-0.566 -0.372 2.352
-0.550 -0.371 2.345
-0.535 -0.372 2.344
-0.523 -0.374 2.355
-0.507 -0.374 2.352
-0.491 -0.373 2.344
-0.475 -0.372 2.339
-0.462 -0.373 2.344
-0.449 -0.376 2.357
-0.435 -0.376 2.357
-0.421 -0.378 2.364
-0.408 -0.379 2.370
-0.393 -0.380 2.374
-0.382 -0.383 2.393
-0.366 -0.383 2.390
-0.348 -0.380 2.367
-0.333 -0.380 2.365
-0.318 -0.380 2.365
-0.302 -0.379 2.356
-0.287 -0.379 2.353
-0.274 -0.382 2.365
-0.259 -0.382 2.368
-0.244 -0.382 2.362
-0.231 -0.384 2.374
-0.215 -0.382 2.361
-0.200 -0.383 2.365
-0.186 -0.385 2.371
-0.171 -0.385 2.368
-0.156 -0.385 2.368
-0.141 -0.386 2.369
-0.126 -0.385 2.365
-0.112 -0.387 2.377
-0.098 -0.391 2.394
-0.083 -0.391 2.391
-0.068 -0.391 2.390
-0.053 -0.387 2.365
-0.038 -0.389 2.375
-0.023 -0.390 2.380
-0.009 -0.392 2.389
0.006 -0.392 2.386
0.021 -0.390 2.370
0.036 -0.390 2.370
0.051 -0.393 2.386
0.066 -0.394 2.390
0.081 -0.393 2.381
0.096 -0.398 2.408
0.111 -0.398 2.404
0.127 -0.399 2.409
0.142 -0.401 2.423
0.157 -0.400 2.415
0.172 -0.400 2.411
0.186 -0.398 2.397
0.201 -0.399 2.401
0.217 -0.402 2.418
0.234 -0.405 2.431
0.248 -0.404 2.425
0.264 -0.405 2.428
0.280 -0.407 2.438
0.295 -0.407 2.436
0.308 -0.405 2.418
0.323 -0.406 2.421
0.339 -0.407 2.429
0.355 -0.408 2.432
0.370 -0.409 2.433
0.383 -0.406 2.416
0.400 -0.409 2.432
0.416 -0.410 2.433
0.432 -0.411 2.439
0.448 -0.412 2.443
0.462 -0.411 2.435
0.475 -0.410 2.427
0.492 -0.412 2.435
0.510 -0.415 2.449
0.521 -0.412 2.430
0.538 -0.414 2.439
0.554 -0.415 2.443
0.570 -0.416 2.444
0.585 -0.416 2.444
0.600 -0.416 2.444
0.615 -0.417 2.444
0.630 -0.417 2.443
0.647 -0.419 2.450
0.664 -0.420 2.455
0.678 -0.419 2.450
0.692 -0.419 2.446
0.706 -0.419 2.443
0.722 -0.419 2.444
0.739 -0.421 2.449
0.756 -0.422 2.456
0.769 -0.421 2.447
0.783 -0.421 2.443
0.799 -0.422 2.446
0.815 -0.423 2.450
0.831 -0.424 2.453
0.848 -0.424 2.456
0.865 -0.426 2.463
0.882 -0.427 2.465
0.895 -0.426 2.460
0.911 -0.427 2.463
0.927 -0.428 2.463
0.943 -0.429 2.467
0.960 -0.430 2.470
0.976 -0.430 2.472
0.991 -0.431 2.472
1.004 -0.430 2.466
1.017 -0.429 2.460
1.033 -0.430 2.461
1.052 -0.432 2.470
1.080 -0.438 2.500
1.098 -0.439 2.505
1.141 -0.450 2.567
1.164 -0.453 2.583
0.000 0.000 0.000
1.251 -0.475 2.701
1.254 -0.470 2.670
0.000 0.000 0.000
1.287 -0.471 2.671
1.304 -0.471 2.671
1.320 -0.472 2.671
1.343 -0.474 2.682
1.297 -0.453 2.559
1.406 -0.485 2.740
1.423 -0.486 2.740
1.435 -0.484 2.732
1.462 -0.488 2.749
1.484 -0.490 2.759
1.469 -0.480 2.700
1.466 -0.474 2.664
1.482 -0.475 2.664
1.495 -0.474 2.657
1.513 -0.474 2.659
1.527 -0.474 2.655
1.542 -0.474 2.652
1.556 -0.474 2.648
1.568 -0.473 2.641
1.584 -0.473 2.640
1.603 -0.474 2.645
1.627 -0.477 2.657
1.644 -0.477 2.657
1.660 -0.478 2.657
1.679 -0.479 2.660
1.699 -0.480 2.667
1.719 -0.482 2.672
1.736 -0.482 2.672
1.745 -0.481 2.661
1.766 -0.482 2.667
1.786 -0.483 2.672
1.799 -0.483 2.667
1.811 -0.482 2.661
1.832 -0.484 2.667
1.846 -0.483 2.663
1.857 -0.483 2.656
1.879 -0.484 2.663
1.902 -0.486 2.673
1.922 -0.488 2.678
1.939 -0.488 2.678
1.956 -0.489 2.678
1.965 -0.487 2.669
1.970 -0.485 2.653
1.975 -0.482 2.637
1.989 -0.482 2.634
2.001 -0.482 2.629
2.006 -0.479 2.613
2.003 -0.475 2.588
1.978 -0.466 2.537
1.983 -0.464 2.522
1.994 -0.463 2.516
1.980 -0.457 2.479
1.992 -0.456 2.475
2.002 -0.455 2.469
1.997 -0.451 2.444
1.996 -0.448 2.425
2.009 -0.448 2.422
2.014 -0.446 2.410
2.017 -0.444 2.396
1.998 -0.437 2.356
1.999 -0.434 2.340
1.992 -0.430 2.315
2.001 -0.429 2.308
2.010 -0.428 2.302
2.008 -0.425 2.285
2.003 -0.422 2.263
2.006 -0.420 2.251
2.014 -0.419 2.243
2.014 -0.416 2.228
2.020 -0.415 2.220
2.023 -0.413 2.207
2.016 -0.409 2.186
2.017 -0.407 2.172
2.023 -0.406 2.164
2.021 -0.403 2.148
2.026 -0.402 2.138
2.012 -0.397 2.111
2.019 -0.396 2.103
2.024 -0.395 2.095
2.020 -0.392 2.078
2.020 -0.390 2.065
2.030 -0.389 2.062
2.039 -0.389 2.058
2.053 -0.389 2.059
0.000 0.000 0.000
0.000 0.000 0.000
0.000 0.000 0.000
0.000 0.000 0.000
0.000 0.000 0.000
0.000 0.000 0.000
0.000 0.000 0.000
0.000 0.000 0.000
0.000 0.000 0.000
0.000 0.000 0.000
0.000 0.000 0.000
0.000 0.000 0.000
0.000 0.000 0.000
0.000 0.000 0.000
0.000 0.000 0.000
-2.138 -0.323 2.380
-2.183 -0.332 2.447
-2.168 -0.333 2.448
-2.166 -0.335 2.463
-2.150 -0.336 2.463
-2.124 -0.334 2.450
0.000 0.000 0.000
-2.154 -0.345 2.521
-2.148 -0.347 2.533
0.000 0.000 0.000
0.000 0.000 0.000
0.000 0.000 0.000
0.000 0.000 0.000
0.000 0.000 0.000
0.000 0.000 0.000
0.000 0.000 0.000
0.000 0.000 0.000
-0.595 -0.104 0.751
0.000 0.000 0.000
0.000 0.000 0.000
0.000 0.000 0.000
0.000 0.000 0.000
0.000 0.000 0.000
0.000 0.000 0.000
0.000 0.000 0.000
-0.646 -0.122 0.872
-0.642 -0.122 0.874
-0.640 -0.123 0.878
-0.647 -0.125 0.895
-0.649 -0.127 0.907
-0.650 -0.128 0.915
-0.655 -0.131 0.930
-0.652 -0.132 0.935
-0.651 -0.133 0.942
-0.648 -0.133 0.946
-0.643 -0.134 0.947
-0.638 -0.134 0.949
-0.634 -0.135 0.952
-0.632 -0.136 0.958
-0.628 -0.136 0.961
0.000 0.000 0.000
-0.625 -0.139 0.976
-0.621 -0.139 0.978
-0.616 -0.140 0.981
0.000 0.000 0.000
0.000 0.000 0.000
-0.617 -0.145 1.012
0.000 0.000 0.000
0.000 0.000 0.000
0.000 0.000 0.000
0.000 0.000 0.000
0.000 0.000 0.000
-0.614 -0.154 1.072
0.000 0.000 0.000
0.000 0.000 0.000
0.000 0.000 0.000
-0.613 -0.162 1.120
-0.612 -0.164 1.132
-0.609 -0.165 1.138
-0.608 -0.167 1.151
0.000 0.000 0.000
0.000 0.000 0.000
0.000 0.000 0.000
0.000 0.000 0.000
0.000 0.000 0.000
0.000 0.000 0.000
0.000 0.000 0.000
0.000 0.000 0.000
0.000 0.000 0.000
0.000 0.000 0.000
0.000 0.000 0.000
0.000 0.000 0.000
0.000 0.000 0.000
-0.611 -0.204 1.387
-0.611 -0.207 1.406
-0.602 -0.207 1.406
-0.593 -0.207 1.405
-0.584 -0.208 1.406
-0.579 -0.209 1.415
-0.574 -0.211 1.422
-0.567 -0.212 1.429
-0.560 -0.213 1.434
-0.554 -0.214 1.441
-0.554 -0.218 1.465
-0.547 -0.219 1.472
-0.545 -0.222 1.491
-0.539 -0.224 1.499
-0.535 -0.226 1.514
-0.529 -0.228 1.524
-0.523 -0.230 1.536
-0.516 -0.231 1.544
-0.509 -0.233 1.551
-0.507 -0.236 1.574
-0.503 -0.239 1.593
-0.493 -0.240 1.593
-0.481 -0.239 1.585
0.000 0.000 0.000
-0.688 -0.357 2.369
-0.671 -0.356 2.358
-0.653 -0.355 2.349
-0.640 -0.356 2.352
-0.620 -0.354 2.334
-0.608 -0.356 2.345
-0.596 -0.358 2.355
-0.581 -0.358 2.355
-0.565 -0.357 2.347
-0.548 -0.356 2.337
-0.534 -0.356 2.338
-0.522 -0.359 2.351
-0.507 -0.359 2.350
-0.491 -0.359 2.347
-0.474 -0.357 2.331
-0.460 -0.358 2.335
-0.448 -0.360 2.348
-0.434 -0.362 2.355
-0.422 -0.364 2.365
-0.408 -0.365 2.373
-0.396 -0.368 2.387
-0.383 -0.371 2.405
-0.367 -0.370 2.398
-0.348 -0.365 2.366
-0.332 -0.365 2.363
-0.317 -0.365 2.360
-0.302 -0.365 2.355
-0.286 -0.364 2.346
-0.273 -0.366 2.360
-0.259 -0.368 2.366
-0.244 -0.367 2.359
-0.230 -0.370 2.374
-0.214 -0.367 2.356
-0.199 -0.368 2.360
-0.185 -0.370 2.366
-0.170 -0.370 2.366
-0.156 -0.370 2.366
-0.142 -0.374 2.388
-0.126 -0.371 2.363
-0.111 -0.371 2.362
-0.097 -0.374 2.382
-0.083 -0.375 2.387
-0.067 -0.373 2.367
-0.052 -0.373 2.364
-0.038 -0.374 2.373
-0.023 -0.375 2.377
-0.008 -0.377 2.387
0.007 -0.376 2.377
0.021 -0.374 2.361
0.036 -0.375 2.368
0.051 -0.379 2.388
0.066 -0.380 2.393
0.080 -0.375 2.359
0.097 -0.383 2.405
0.111 -0.380 2.388
0.127 -0.383 2.399
0.142 -0.385 2.413
0.157 -0.385 2.407
0.172 -0.385 2.405
0.186 -0.383 2.390
0.201 -0.384 2.397
0.218 -0.388 2.416
0.235 -0.391 2.436
0.248 -0.389 2.420
0.264 -0.390 2.421
0.279 -0.390 2.424
0.294 -0.391 2.426
0.308 -0.389 2.411
0.323 -0.389 2.411
0.338 -0.391 2.417
0.354 -0.392 2.420
0.369 -0.392 2.419
0.381 -0.389 2.398
0.400 -0.394 2.427
0.416 -0.395 2.430
0.433 -0.397 2.441
0.449 -0.398 2.444
0.461 -0.396 2.430
0.476 -0.396 2.427
0.492 -0.397 2.431
0.510 -0.399 2.445
0.522 -0.397 2.428
0.539 -0.399 2.438
0.554 -0.400 2.440
0.570 -0.400 2.442
0.585 -0.401 2.442
0.601 -0.401 2.442
0.617 -0.402 2.445
0.632 -0.403 2.445
0.648 -0.404 2.450
0.664 -0.404 2.450
0.678 -0.404 2.447
0.692 -0.404 2.442
0.707 -0.404 2.440
0.722 -0.404 2.440
0.738 -0.405 2.442
0.753 -0.405 2.444
0.769 -0.406 2.444
0.783 -0.406 2.442
0.799 -0.407 2.445
0.815 -0.408 2.448
0.832 -0.408 2.451
0.847 -0.409 2.451
0.864 -0.410 2.457
0.881 -0.411 2.460
0.896 -0.412 2.460
0.910 -0.411 2.457
0.926 -0.412 2.457
0.945 -0.414 2.467
0.960 -0.414 2.468
0.976 -0.415 2.470
0.991 -0.415 2.468
1.005 -0.415 2.464
1.018 -0.414 2.459
1.036 -0.416 2.465
1.051 -0.416 2.465
1.075 -0.420 2.486
1.096 -0.423 2.498
1.130 -0.430 2.538
1.154 -0.433 2.557
0.000 0.000 0.000
1.252 -0.458 2.699
1.254 -0.453 2.668
0.000 0.000 0.000
1.287 -0.454 2.668
1.304 -0.455 2.668
1.321 -0.455 2.669
1.343 -0.457 2.680
0.000 0.000 0.000
1.406 -0.468 2.738
1.423 -0.469 2.738
1.436 -0.468 2.730
1.462 -0.471 2.747
1.486 -0.474 2.761
1.474 -0.465 2.707
1.470 -0.459 2.669
1.484 -0.458 2.664
1.492 -0.456 2.650
1.509 -0.457 2.650
1.525 -0.457 2.650
1.540 -0.457 2.646
1.556 -0.457 2.646
1.569 -0.457 2.641
1.584 -0.457 2.638
1.605 -0.459 2.646
1.629 -0.461 2.657
1.644 -0.461 2.655
1.662 -0.462 2.657
1.680 -0.463 2.660
1.697 -0.463 2.661
1.716 -0.464 2.665
1.736 -0.466 2.670
1.749 -0.465 2.665
1.762 -0.465 2.659
1.774 -0.464 2.653
1.788 -0.464 2.648
1.803 -0.464 2.646
1.824 -0.465 2.653
1.841 -0.466 2.654
1.858 -0.466 2.654
1.879 -0.468 2.661
1.902 -0.470 2.670
1.919 -0.470 2.670
1.932 -0.470 2.665
1.952 -0.471 2.671
1.958 -0.469 2.656
1.967 -0.468 2.646
1.977 -0.466 2.637
1.989 -0.466 2.632
2.002 -0.466 2.628
2.006 -0.463 2.611
2.013 -0.461 2.599
1.996 -0.454 2.557
1.986 -0.449 2.524
1.995 -0.448 2.515
1.991 -0.444 2.491
1.993 -0.441 2.474
2.001 -0.440 2.465
2.001 -0.437 2.446
2.000 -0.434 2.427
2.011 -0.433 2.422
2.019 -0.432 2.414
2.017 -0.429 2.394
2.006 -0.424 2.363
2.000 -0.420 2.338
2.000 -0.417 2.322
2.004 -0.415 2.310
2.002 -0.412 2.291
1.992 -0.408 2.264
1.996 -0.406 2.253
2.002 -0.405 2.244
2.011 -0.404 2.238
2.003 -0.400 2.214
1.997 -0.397 2.192
2.001 -0.395 2.182
2.009 -0.394 2.176
2.015 -0.393 2.168
2.024 -0.393 2.162
2.020 -0.390 2.144
2.015 -0.387 2.125
2.007 -0.383 2.103
2.013 -0.382 2.096
2.020 -0.381 2.089
2.017 -0.378 2.073
2.018 -0.376 2.061
2.029 -0.376 2.060
2.038 -0.376 2.056
2.053 -0.377 2.058
0.000 0.000 0.000
0.000 0.000 0.000
0.000 0.000 0.000
0.000 0.000 0.000
0.000 0.000 0.000
0.000 0.000 0.000
0.000 0.000 0.000
0.000 0.000 0.000
0.000 0.000 0.000
0.000 0.000 0.000
0.000 0.000 0.000
0.000 0.000 0.000
0.000 0.000 0.000
0.000 0.000 0.000
0.000 0.000 0.000
0.000 0.000 0.000
-2.179 -0.317 2.442
-2.181 -0.320 2.462
-2.178 -0.322 2.475
-2.163 -0.322 2.476
-2.141 -0.322 2.468
0.000 0.000 0.000
-2.174 -0.333 2.544
-2.170 -0.335 2.557
0.000 0.000 0.000
0.000 0.000 0.000
0.000 0.000 0.000
0.000 0.000 0.000
0.000 0.000 0.000
0.000 0.000 0.000
0.000 0.000 0.000
0.000 0.000 0.000
0.000 0.000 0.000
0.000 0.000 0.000
0.000 0.000 0.000
0.000 0.000 0.000
0.000 0.000 0.000
0.000 0.000 0.000
0.000 0.000 0.000
0.000 0.000 0.000
-0.645 -0.116 0.870
-0.643 -0.117 0.874
-0.640 -0.118 0.878
-0.647 -0.120 0.895
-0.649 -0.122 0.906
-0.649 -0.123 0.914
-0.650 -0.124 0.923
-0.653 -0.126 0.936
-0.651 -0.127 0.941
-0.648 -0.128 0.945
-0.643 -0.128 0.947
-0.640 -0.129 0.951
-0.638 -0.130 0.957
-0.633 -0.130 0.959
-0.629 -0.130 0.961
-0.628 -0.132 0.970
-0.627 -0.133 0.977
-0.622 -0.133 0.980
-0.616 -0.133 0.979
0.000 0.000 0.000
0.000 0.000 0.000
0.000 0.000 0.000
-0.626 -0.142 1.037
-0.622 -0.143 1.041
-0.615 -0.143 1.040
-0.614 -0.144 1.050
0.000 0.000 0.000
0.000 0.000 0.000
0.000 0.000 0.000
0.000 0.000 0.000
-0.613 -0.153 1.107
-0.615 -0.155 1.123
-0.611 -0.156 1.129
0.000 0.000 0.000
0.000 0.000 0.000
0.000 0.000 0.000
0.000 0.000 0.000
0.000 0.000 0.000
0.000 0.000 0.000
0.000 0.000 0.000
0.000 0.000 0.000
0.000 0.000 0.000
0.000 0.000 0.000
0.000 0.000 0.000
0.000 0.000 0.000
0.000 0.000 0.000
0.000 0.000 0.000
0.000 0.000 0.000
0.000 0.000 0.000
-0.607 -0.197 1.397
-0.600 -0.198 1.402
-0.591 -0.198 1.401
-0.583 -0.199 1.403
-0.578 -0.200 1.411
-0.571 -0.201 1.415
-0.565 -0.202 1.423
-0.559 -0.203 1.429
0.000 0.000 0.000
-0.554 -0.209 1.463
-0.547 -0.210 1.471
-0.547 -0.214 1.494
-0.539 -0.214 1.498
-0.534 -0.217 1.513
-0.528 -0.218 1.522
-0.522 -0.220 1.530
-0.515 -0.221 1.540
-0.512 -0.224 1.559
-0.510 -0.228 1.584
-0.505 -0.230 1.598
-0.496 -0.231 1.603
-0.481 -0.229 1.586
-0.471 -0.230 1.587
0.000 0.000 0.000
-0.663 -0.338 2.330
-0.652 -0.340 2.344
-0.639 -0.341 2.348
-0.618 -0.338 2.326
-0.605 -0.340 2.333
-0.596 -0.343 2.353
-0.581 -0.343 2.353
-0.563 -0.342 2.339
-0.546 -0.341 2.330
-0.533 -0.342 2.337
-0.520 -0.343 2.344
-0.507 -0.345 2.349
-0.491 -0.344 2.344
-0.473 -0.342 2.328
-0.459 -0.343 2.333
-0.447 -0.345 2.344
-0.434 -0.347 2.351
-0.420 -0.348 2.359
-0.407 -0.350 2.367
-0.396 -0.353 2.388
-0.389 -0.362 2.443
-0.373 -0.361 2.435
-0.347 -0.350 2.360
-0.332 -0.350 2.358
-0.317 -0.351 2.358
-0.303 -0.351 2.361
-0.286 -0.350 2.347
-0.273 -0.352 2.357
-0.258 -0.352 2.358
-0.243 -0.352 2.352
-0.229 -0.354 2.367
-0.214 -0.353 2.358
-0.199 -0.354 2.358
-0.185 -0.355 2.364
-0.170 -0.355 2.363
-0.156 -0.356 2.369
-0.141 -0.358 2.376
-0.125 -0.356 2.358
-0.111 -0.356 2.361
-0.097 -0.358 2.373
-0.082 -0.360 2.379
-0.067 -0.358 2.362
-0.052 -0.359 2.369
-0.037 -0.360 2.375
-0.023 -0.363 2.393
-0.008 -0.363 2.391
0.007 -0.362 2.376
0.022 -0.359 2.355
0.037 -0.360 2.362
0.052 -0.364 2.387
0.067 -0.366 2.393
0.081 -0.363 2.375
0.097 -0.366 2.393
0.111 -0.365 2.384
0.126 -0.366 2.387
0.143 -0.370 2.412
0.158 -0.370 2.409
0.172 -0.370 2.406
0.186 -0.369 2.393
0.202 -0.370 2.399
0.218 -0.373 2.414
0.234 -0.374 2.421
0.248 -0.374 2.415
0.263 -0.373 2.412
0.279 -0.375 2.417
0.294 -0.375 2.418
0.308 -0.374 2.406
0.322 -0.374 2.404
0.337 -0.374 2.404
0.353 -0.375 2.406
0.368 -0.375 2.408
0.380 -0.373 2.388
0.400 -0.379 2.423
0.416 -0.380 2.428
0.433 -0.382 2.437
0.449 -0.382 2.439
0.461 -0.380 2.425
0.475 -0.380 2.420
0.491 -0.381 2.422
0.507 -0.382 2.429
0.524 -0.383 2.435
0.538 -0.383 2.428
0.554 -0.384 2.436
0.571 -0.385 2.440
0.586 -0.386 2.442
0.601 -0.386 2.439
0.616 -0.386 2.439
0.633 -0.388 2.445
0.648 -0.388 2.446
0.662 -0.388 2.440
0.678 -0.389 2.443
0.692 -0.388 2.438
0.706 -0.388 2.436
0.722 -0.389 2.439
0.739 -0.390 2.443
0.754 -0.390 2.442
0.769 -0.391 2.443
0.782 -0.390 2.436
0.797 -0.391 2.436
0.814 -0.391 2.440
0.832 -0.393 2.449
0.847 -0.393 2.447
0.863 -0.394 2.449
0.879 -0.395 2.452
0.897 -0.396 2.458
0.911 -0.396 2.455
0.926 -0.397 2.455
0.943 -0.397 2.459
0.960 -0.399 2.465
0.976 -0.399 2.465
0.991 -0.400 2.465
1.004 -0.399 2.460
1.020 -0.400 2.460
1.035 -0.400 2.460
1.054 -0.402 2.468
1.075 -0.404 2.481
1.094 -0.406 2.490
1.119 -0.410 2.511
0.000 0.000 0.000
0.000 0.000 0.000
0.000 0.000 0.000
0.000 0.000 0.000
0.000 0.000 0.000
0.000 0.000 0.000
0.000 0.000 0.000
0.000 0.000 0.000
0.000 0.000 0.000
0.000 0.000 0.000
0.000 0.000 0.000
0.000 0.000 0.000
1.404 -0.441 2.667
1.462 -0.454 2.745
1.483 -0.456 2.751
1.480 -0.450 2.715
1.468 -0.442 2.662
1.484 -0.442 2.662
1.494 -0.440 2.650
1.511 -0.441 2.650
1.526 -0.441 2.648
1.538 -0.440 2.640
1.552 -0.440 2.636
1.567 -0.440 2.633
1.580 -0.439 2.628
1.598 -0.440 2.631
1.622 -0.443 2.643
1.640 -0.443 2.646
1.658 -0.444 2.648
1.676 -0.445 2.650
1.691 -0.445 2.648
1.707 -0.445 2.648
1.733 -0.448 2.663
1.747 -0.448 2.659
1.760 -0.448 2.653
1.773 -0.447 2.648
1.786 -0.447 2.643
1.803 -0.447 2.643
1.824 -0.449 2.651
1.846 -0.451 2.659
1.861 -0.450 2.656
1.877 -0.451 2.656
1.894 -0.451 2.656
1.909 -0.451 2.654
1.928 -0.452 2.657
1.944 -0.453 2.657
1.960 -0.453 2.656
1.968 -0.451 2.644
1.977 -0.450 2.635
1.990 -0.450 2.630
2.004 -0.450 2.628
2.006 -0.447 2.609
2.011 -0.445 2.594
2.007 -0.441 2.568
1.994 -0.435 2.532
1.999 -0.433 2.519
1.999 -0.430 2.499
2.007 -0.429 2.489
2.005 -0.426 2.468
1.995 -0.421 2.437
2.000 -0.419 2.425
2.011 -0.418 2.420
2.025 -0.418 2.418
2.019 -0.414 2.393
2.014 -0.411 2.371
1.998 -0.405 2.334
2.001 -0.403 2.321
1.991 -0.398 2.292
1.984 -0.395 2.269
1.984 -0.392 2.252
1.993 -0.392 2.247
2.004 -0.391 2.244
2.010 -0.390 2.235
2.007 -0.387 2.216
2.010 -0.385 2.204
2.010 -0.383 2.190
2.018 -0.383 2.183
2.023 -0.381 2.174
2.026 -0.380 2.163
2.020 -0.376 2.142
2.025 -0.375 2.134
2.012 -0.371 2.106
2.017 -0.370 2.098
2.019 -0.368 2.087
2.016 -0.365 2.070
2.007 -0.362 2.048
2.005 -0.359 2.033
2.015 -0.359 2.030
2.034 -0.361 2.036
0.000 0.000 0.000
0.000 0.000 0.000
0.000 0.000 0.000
0.000 0.000 0.000
0.000 0.000 0.000
0.000 0.000 0.000
0.000 0.000 0.000
0.000 0.000 0.000
0.000 0.000 0.000
0.000 0.000 0.000
0.000 0.000 0.000
0.000 0.000 0.000
0.000 0.000 0.000
-2.143 -0.289 2.350
0.000 0.000 0.000
0.000 0.000 0.000
0.000 0.000 0.000
0.000 0.000 0.000
-2.185 -0.308 2.482
-2.180 -0.310 2.494
-2.167 -0.310 2.497
-2.147 -0.310 2.492
-2.197 -0.320 2.569
-2.198 -0.323 2.589
0.000 0.000 0.000
0.000 0.000 0.000
0.000 0.000 0.000
0.000 0.000 0.000
0.000 0.000 0.000
0.000 0.000 0.000
0.000 0.000 0.000
-1.028 -0.162 1.287
0.000 0.000 0.000
0.000 0.000 0.000
0.000 0.000 0.000
0.000 0.000 0.000
0.000 0.000 0.000
0.000 0.000 0.000
0.000 0.000 0.000
0.000 0.000 0.000
0.000 0.000 0.000
-0.645 -0.112 0.876
-0.642 -0.112 0.879
-0.646 -0.114 0.893
-0.648 -0.116 0.904
-0.649 -0.117 0.913
-0.649 -0.118 0.921
-0.652 -0.120 0.934
-0.654 -0.122 0.945
-0.648 -0.122 0.945
-0.643 -0.122 0.946
-0.640 -0.123 0.951
-0.638 -0.124 0.956
-0.633 -0.124 0.959
-0.629 -0.125 0.962
-0.631 -0.126 0.973
-0.627 -0.127 0.977
-0.626 -0.128 0.984
0.000 0.000 0.000
-0.630 -0.132 1.012
-0.632 -0.134 1.025
-0.628 -0.134 1.028
-0.623 -0.135 1.032
-0.614 -0.135 1.026
0.000 0.000 0.000
0.000 0.000 0.000
0.000 0.000 0.000
0.000 0.000 0.000
0.000 0.000 0.000
0.000 0.000 0.000
-0.611 -0.146 1.104
0.000 0.000 0.000
-0.609 -0.149 1.125
-0.602 -0.149 1.125
0.000 0.000 0.000
0.000 0.000 0.000
0.000 0.000 0.000
0.000 0.000 0.000
0.000 0.000 0.000
0.000 0.000 0.000
0.000 0.000 0.000
-1.168 -0.322 2.409
0.000 0.000 0.000
0.000 0.000 0.000
0.000 0.000 0.000
0.000 0.000 0.000
0.000 0.000 0.000
0.000 0.000 0.000
0.000 0.000 0.000
-0.607 -0.189 1.395
-0.598 -0.189 1.396
-0.591 -0.190 1.399
-0.583 -0.190 1.402
-0.579 -0.192 1.412
-0.570 -0.192 1.413
-0.564 -0.193 1.419
-0.558 -0.194 1.427
-0.556 -0.197 1.446
-0.555 -0.200 1.465
-0.547 -0.201 1.471
-0.544 -0.203 1.486
-0.536 -0.204 1.489
-0.532 -0.206 1.505
-0.527 -0.209 1.519
-0.521 -0.210 1.528
-0.514 -0.211 1.535
-0.513 -0.215 1.563
-0.512 -0.219 1.591
-0.508 -0.222 1.608
-0.506 -0.226 1.633
0.000 0.000 0.000
-0.483 -0.225 1.627
-0.471 -0.225 1.621
0.000 0.000 0.000
-0.647 -0.323 2.326
-0.635 -0.325 2.335
-0.618 -0.324 2.326
-0.607 -0.326 2.337
-0.594 -0.328 2.347
-0.581 -0.329 2.351
-0.562 -0.327 2.335
-0.545 -0.326 2.326
-0.533 -0.328 2.336
-0.519 -0.328 2.339
-0.505 -0.329 2.343
-0.490 -0.329 2.338
-0.474 -0.328 2.331
-0.459 -0.329 2.332
-0.445 -0.330 2.336
-0.433 -0.332 2.349
-0.420 -0.334 2.358
-0.406 -0.335 2.363
-0.395 -0.339 2.387
-0.389 -0.347 2.441
-0.374 -0.347 2.444
-0.346 -0.335 2.356
-0.331 -0.336 2.356
-0.317 -0.336 2.356
-0.302 -0.337 2.361
-0.286 -0.335 2.344
-0.272 -0.337 2.356
-0.258 -0.338 2.359
-0.242 -0.337 2.350
-0.228 -0.338 2.356
-0.213 -0.338 2.348
-0.199 -0.339 2.356
-0.184 -0.340 2.359
-0.170 -0.341 2.366
-0.155 -0.342 2.366
-0.140 -0.341 2.363
-0.125 -0.341 2.356
-0.111 -0.342 2.360
-0.096 -0.343 2.369
-0.081 -0.344 2.370
-0.066 -0.342 2.357
-0.052 -0.345 2.373
-0.037 -0.346 2.375
-0.022 -0.346 2.374
-0.007 -0.346 2.374
0.008 -0.347 2.373
0.022 -0.344 2.353
0.037 -0.346 2.362
0.052 -0.348 2.376
0.067 -0.351 2.391
0.082 -0.350 2.386
0.097 -0.352 2.393
0.112 -0.352 2.389
0.127 -0.352 2.391
0.143 -0.355 2.407
0.158 -0.355 2.404
0.174 -0.357 2.415
0.187 -0.354 2.392
0.203 -0.356 2.402
0.219 -0.358 2.412
0.234 -0.359 2.416
0.248 -0.357 2.402
0.263 -0.357 2.402
0.278 -0.359 2.409
0.294 -0.360 2.416
0.308 -0.358 2.402
0.322 -0.358 2.397
0.336 -0.358 2.393
0.352 -0.359 2.399
0.368 -0.360 2.402
0.379 -0.357 2.379
0.400 -0.363 2.416
0.416 -0.364 2.421
0.432 -0.365 2.427
0.449 -0.367 2.436
0.461 -0.365 2.421
0.477 -0.366 2.423
0.492 -0.366 2.424
0.509 -0.368 2.433
0.523 -0.367 2.426
0.537 -0.367 2.423
0.554 -0.369 2.430
0.571 -0.370 2.437
0.587 -0.371 2.441
0.601 -0.371 2.437
0.616 -0.371 2.436
0.632 -0.372 2.437
0.649 -0.373 2.446
0.662 -0.372 2.437
0.678 -0.373 2.441
0.692 -0.373 2.437
0.706 -0.373 2.433
0.722 -0.374 2.434
0.741 -0.376 2.447
0.755 -0.376 2.444
0.770 -0.376 2.442
0.783 -0.375 2.434
0.797 -0.375 2.430
0.813 -0.376 2.435
0.830 -0.377 2.439
0.848 -0.379 2.447
0.860 -0.378 2.439
0.876 -0.378 2.442
0.894 -0.380 2.447
0.910 -0.381 2.450
0.925 -0.381 2.450
0.942 -0.382 2.453
0.958 -0.383 2.457
0.975 -0.384 2.460
0.991 -0.384 2.461
1.005 -0.384 2.458
1.023 -0.385 2.464
1.044 -0.388 2.478
1.061 -0.389 2.482
1.078 -0.390 2.485
1.094 -0.390 2.487
1.111 -0.392 2.491
0.000 0.000 0.000
0.000 0.000 0.000
0.000 0.000 0.000
0.000 0.000 0.000
0.000 0.000 0.000
0.000 0.000 0.000
0.000 0.000 0.000
0.000 0.000 0.000
0.000 0.000 0.000
0.000 0.000 0.000
0.000 0.000 0.000
1.413 -0.431 2.713
1.433 -0.433 2.718
1.461 -0.436 2.739
1.478 -0.437 2.739
1.483 -0.434 2.716
1.465 -0.424 2.653
1.485 -0.426 2.660
1.497 -0.425 2.653
1.514 -0.425 2.653
1.530 -0.426 2.653
1.542 -0.425 2.643
1.552 -0.423 2.633
1.563 -0.422 2.624
1.572 -0.421 2.612
1.588 -0.421 2.612
1.609 -0.423 2.619
1.627 -0.424 2.622
1.649 -0.426 2.631
1.664 -0.425 2.628
1.677 -0.425 2.624
1.692 -0.425 2.622
1.715 -0.427 2.632
1.735 -0.428 2.637
1.751 -0.429 2.637
1.769 -0.430 2.639
1.782 -0.429 2.634
1.797 -0.429 2.632
1.823 -0.432 2.646
1.845 -0.434 2.655
1.863 -0.435 2.657
1.880 -0.435 2.657
1.893 -0.435 2.652
1.906 -0.434 2.647
1.927 -0.436 2.654
1.946 -0.437 2.657
1.964 -0.437 2.659
1.974 -0.436 2.650
1.979 -0.434 2.635
1.991 -0.434 2.630
2.006 -0.434 2.628
2.012 -0.432 2.613
2.008 -0.428 2.587
2.010 -0.425 2.569
2.000 -0.421 2.537
2.001 -0.418 2.519
1.999 -0.414 2.496
2.005 -0.413 2.485
1.997 -0.408 2.455
1.992 -0.405 2.431
2.001 -0.404 2.423
2.015 -0.404 2.422
2.028 -0.404 2.419
2.019 -0.400 2.391
2.025 -0.398 2.381
2.022 -0.395 2.359
2.008 -0.390 2.326
2.002 -0.386 2.303
2.004 -0.384 2.289
2.003 -0.382 2.272
2.007 -0.380 2.261
2.019 -0.380 2.258
2.018 -0.378 2.241
2.014 -0.375 2.222
2.015 -0.373 2.207
2.009 -0.370 2.187
2.011 -0.368 2.173
2.019 -0.367 2.167
2.028 -0.367 2.163
2.016 -0.362 2.136
2.018 -0.361 2.124
2.011 -0.358 2.104
2.017 -0.356 2.095
2.022 -0.355 2.087
2.014 -0.352 2.066
2.013 -0.350 2.052
2.015 -0.348 2.041
2.021 -0.348 2.035
2.041 -0.349 2.042
0.000 0.000 0.000
0.000 0.000 0.000
0.000 0.000 0.000
0.000 0.000 0.000
0.000 0.000 0.000
0.000 0.000 0.000
0.000 0.000 0.000
0.000 0.000 0.000
0.000 0.000 0.000
0.000 0.000 0.000
0.000 0.000 0.000
0.000 0.000 0.000
0.000 0.000 0.000
0.000 0.000 0.000
0.000 0.000 0.000
0.000 0.000 0.000
0.000 0.000 0.000
0.000 0.000 0.000
-2.201 -0.294 2.499
-2.192 -0.296 2.506
-2.180 -0.297 2.510
0.000 0.000 0.000
-2.168 -0.300 2.534
-2.179 -0.304 2.566
0.000 0.000 0.000
0.000 0.000 0.000
0.000 0.000 0.000
0.000 0.000 0.000
0.000 0.000 0.000
0.000 0.000 0.000
0.000 0.000 0.000
-1.029 -0.154 1.288
-1.024 -0.155 1.291
0.000 0.000 0.000
0.000 0.000 0.000
0.000 0.000 0.000
0.000 0.000 0.000
0.000 0.000 0.000
0.000 0.000 0.000
0.000 0.000 0.000
0.000 0.000 0.000
-0.646 -0.106 0.877
-0.642 -0.107 0.880
-0.646 -0.109 0.892
-0.648 -0.110 0.903
-0.651 -0.112 0.915
-0.651 -0.113 0.923
-0.652 -0.114 0.933
-0.654 -0.116 0.944
-0.649 -0.116 0.945
-0.644 -0.116 0.947
-0.641 -0.117 0.952
-0.638 -0.118 0.956
-0.633 -0.118 0.958
-0.630 -0.119 0.962
-0.631 -0.120 0.973
-0.628 -0.121 0.977
-0.625 -0.122 0.983
-0.621 -0.122 0.987
-0.630 -0.126 1.011
-0.629 -0.127 1.019
-0.624 -0.127 1.021
-0.617 -0.127 1.022
0.000 0.000 0.000
0.000 0.000 0.000
0.000 0.000 0.000
0.000 0.000 0.000
0.000 0.000 0.000
0.000 0.000 0.000
0.000 0.000 0.000
0.000 0.000 0.000
0.000 0.000 0.000
0.000 0.000 0.000
-0.604 -0.143 1.127
-0.610 -0.146 1.152
-0.600 -0.145 1.147
0.000 0.000 0.000
0.000 0.000 0.000
0.000 0.000 0.000
0.000 0.000 0.000
0.000 0.000 0.000
0.000 0.000 0.000
0.000 0.000 0.000
0.000 0.000 0.000
0.000 0.000 0.000
0.000 0.000 0.000
0.000 0.000 0.000
0.000 0.000 0.000
-0.607 -0.177 1.376
-0.600 -0.178 1.380
-0.595 -0.179 1.388
-0.590 -0.181 1.396
-0.583 -0.181 1.401
-0.579 -0.183 1.412
-0.570 -0.183 1.413
-0.564 -0.184 1.419
-0.557 -0.185 1.425
0.000 0.000 0.000
-0.554 -0.191 1.463
-0.546 -0.192 1.467
-0.541 -0.193 1.479
-0.533 -0.194 1.481
-0.523 -0.194 1.479
0.000 0.000 0.000
0.000 0.000 0.000
0.000 0.000 0.000
-0.511 -0.205 1.557
-0.513 -0.210 1.593
-0.509 -0.213 1.612
-0.505 -0.216 1.632
-0.495 -0.216 1.632
-0.486 -0.217 1.636
-0.474 -0.216 1.630
-0.476 -0.222 1.671
-0.465 -0.222 1.670
0.000 0.000 0.000
-0.625 -0.313 2.351
-0.608 -0.312 2.342
-0.593 -0.313 2.341
-0.578 -0.313 2.342
-0.561 -0.312 2.329
-0.545 -0.312 2.326
-0.533 -0.313 2.334
-0.519 -0.314 2.337
-0.505 -0.315 2.340
-0.489 -0.314 2.334
-0.474 -0.315 2.333
-0.460 -0.315 2.336
-0.446 -0.316 2.340
-0.432 -0.317 2.345
-0.419 -0.319 2.353
-0.406 -0.320 2.360
-0.394 -0.323 2.377
-0.397 -0.338 2.489
-0.377 -0.336 2.466
-0.345 -0.321 2.353
-0.331 -0.321 2.353
-0.317 -0.322 2.359
-0.302 -0.322 2.357
-0.285 -0.321 2.342
-0.272 -0.322 2.350
-0.257 -0.323 2.354
-0.242 -0.322 2.348
-0.227 -0.323 2.350
-0.212 -0.323 2.345
-0.198 -0.324 2.350
-0.184 -0.325 2.356
-0.169 -0.326 2.362
-0.155 -0.326 2.360
-0.139 -0.325 2.350
-0.125 -0.326 2.354
-0.110 -0.327 2.358
-0.096 -0.329 2.367
-0.081 -0.328 2.360
-0.066 -0.328 2.355
-0.051 -0.329 2.362
-0.037 -0.331 2.375
-0.022 -0.332 2.377
-0.007 -0.332 2.376
0.008 -0.332 2.369
0.022 -0.329 2.347
0.037 -0.330 2.354
0.052 -0.333 2.370
0.068 -0.336 2.389
0.083 -0.338 2.399
0.098 -0.337 2.389
0.112 -0.337 2.387
0.127 -0.338 2.389
0.143 -0.339 2.400
0.157 -0.338 2.389
0.173 -0.339 2.394
0.187 -0.338 2.384
0.202 -0.340 2.391
0.218 -0.342 2.404
0.234 -0.344 2.414
0.247 -0.341 2.392
0.263 -0.342 2.400
0.279 -0.344 2.408
0.295 -0.345 2.415
0.308 -0.344 2.400
0.322 -0.343 2.395
0.337 -0.343 2.391
0.353 -0.345 2.400
0.368 -0.345 2.402
0.380 -0.343 2.383
0.400 -0.347 2.412
0.416 -0.349 2.418
0.432 -0.350 2.425
0.449 -0.352 2.433
0.461 -0.349 2.415
0.477 -0.351 2.422
0.494 -0.352 2.427
0.510 -0.353 2.432
0.522 -0.351 2.418
0.539 -0.353 2.428
0.555 -0.354 2.431
0.570 -0.354 2.431
0.587 -0.356 2.438
0.601 -0.355 2.432
0.617 -0.356 2.435
0.632 -0.357 2.435
0.648 -0.357 2.438
0.662 -0.357 2.434
0.678 -0.358 2.438
0.695 -0.359 2.441
0.707 -0.358 2.432
0.722 -0.358 2.432
0.739 -0.360 2.439
0.754 -0.360 2.437
0.770 -0.361 2.440
0.784 -0.360 2.435
0.797 -0.360 2.429
0.814 -0.361 2.435
0.831 -0.362 2.440
0.847 -0.363 2.443
0.862 -0.363 2.440
0.878 -0.364 2.442
0.894 -0.365 2.445
0.910 -0.365 2.448
0.926 -0.366 2.448
0.941 -0.366 2.448
0.956 -0.367 2.448
0.973 -0.367 2.452
0.990 -0.368 2.456
1.006 -0.369 2.459
1.029 -0.372 2.476
1.047 -0.374 2.483
1.064 -0.374 2.486
1.081 -0.375 2.489
1.099 -0.377 2.494
1.117 -0.378 2.500
1.135 -0.379 2.507
0.000 0.000 0.000
1.248 -0.406 2.681
1.255 -0.404 2.662
0.000 0.000 0.000
1.289 -0.405 2.662
1.305 -0.405 2.662
1.322 -0.406 2.662
1.339 -0.406 2.662
0.000 0.000 0.000
0.000 0.000 0.000
1.423 -0.418 2.729
1.437 -0.417 2.723
1.462 -0.420 2.739
1.482 -0.421 2.743
1.495 -0.420 2.737
1.462 -0.407 2.645
1.480 -0.408 2.648
1.497 -0.408 2.648
1.514 -0.409 2.651
1.527 -0.408 2.643
1.537 -0.407 2.632
1.553 -0.407 2.632
1.569 -0.407 2.631
1.575 -0.405 2.615
1.591 -0.406 2.614
1.609 -0.406 2.617
1.626 -0.407 2.617
1.645 -0.408 2.622
1.664 -0.409 2.626
1.681 -0.410 2.626
1.699 -0.410 2.630
1.715 -0.411 2.630
1.732 -0.411 2.630
1.748 -0.412 2.630
1.767 -0.413 2.633
1.786 -0.414 2.637
1.799 -0.413 2.632
1.822 -0.415 2.642
1.842 -0.417 2.647
1.858 -0.417 2.647
1.873 -0.417 2.644
1.893 -0.418 2.650
1.915 -0.420 2.657
1.933 -0.420 2.659
1.947 -0.420 2.655
1.963 -0.421 2.655
1.971 -0.419 2.643
1.976 -0.417 2.627
1.987 -0.417 2.621
2.004 -0.417 2.621
2.011 -0.416 2.610
2.018 -0.414 2.598
2.022 -0.412 2.582
2.004 -0.406 2.539
1.998 -0.401 2.511
1.995 -0.398 2.489
2.004 -0.397 2.481
2.006 -0.395 2.464
1.998 -0.391 2.435
1.999 -0.389 2.419
2.012 -0.388 2.416
2.022 -0.388 2.410
2.017 -0.384 2.386
2.021 -0.383 2.374
2.014 -0.379 2.348
2.015 -0.377 2.333
2.005 -0.373 2.304
2.016 -0.372 2.301
2.011 -0.369 2.278
2.011 -0.367 2.263
2.024 -0.367 2.262
2.031 -0.366 2.254
2.012 -0.361 2.218
2.012 -0.359 2.202
2.001 -0.355 2.176
2.004 -0.353 2.164
2.015 -0.353 2.161
2.026 -0.353 2.158
2.022 -0.350 2.140
2.023 -0.348 2.128
2.010 -0.344 2.100
2.013 -0.343 2.090
2.023 -0.343 2.087
2.015 -0.339 2.065
2.022 -0.339 2.059
2.031 -0.339 2.056
2.034 -0.337 2.045
2.053 -0.339 2.052
0.000 0.000 0.000
0.000 0.000 0.000
0.000 0.000 0.000
0.000 0.000 0.000
0.000 0.000 0.000
0.000 0.000 0.000
0.000 0.000 0.000
0.000 0.000 0.000
0.000 0.000 0.000
0.000 0.000 0.000
0.000 0.000 0.000
0.000 0.000 0.000
0.000 0.000 0.000
0.000 0.000 0.000
0.000 0.000 0.000
0.000 0.000 0.000
0.000 0.000 0.000
-2.230 -0.280 2.512
-2.247 -0.285 2.549
-2.226 -0.284 2.543
-2.178 -0.281 2.507
-2.142 -0.279 2.483
-2.137 -0.280 2.496
-2.117 -0.280 2.491
0.000 0.000 0.000
0.000 0.000 0.000
0.000 0.000 0.000
0.000 0.000 0.000
0.000 0.000 0.000
0.000 0.000 0.000
0.000 0.000 0.000
0.000 0.000 0.000
0.000 0.000 0.000
0.000 0.000 0.000
0.000 0.000 0.000
0.000 0.000 0.000
0.000 0.000 0.000
0.000 0.000 0.000
0.000 0.000 0.000
0.000 0.000 0.000
0.000 0.000 0.000
-0.645 -0.101 0.876
-0.644 -0.102 0.882
-0.646 -0.103 0.891
-0.648 -0.105 0.903
-0.650 -0.106 0.914
-0.653 -0.108 0.926
-0.652 -0.109 0.933
-0.653 -0.110 0.943
-0.647 -0.110 0.943
-0.643 -0.110 0.946
-0.640 -0.111 0.950
-0.638 -0.112 0.955
-0.634 -0.112 0.958
0.000 0.000 0.000
-0.632 -0.114 0.973
-0.628 -0.115 0.978
-0.625 -0.116 0.983
-0.622 -0.116 0.987
-0.631 -0.120 1.011
-0.629 -0.121 1.019
-0.624 -0.121 1.022
-0.618 -0.121 1.022
-0.612 -0.121 1.022
0.000 0.000 0.000
0.000 0.000 0.000
0.000 0.000 0.000
0.000 0.000 0.000
0.000 0.000 0.000
0.000 0.000 0.000
0.000 0.000 0.000
0.000 0.000 0.000
0.000 0.000 0.000
0.000 0.000 0.000
0.000 0.000 0.000
0.000 0.000 0.000
0.000 0.000 0.000
0.000 0.000 0.000
0.000 0.000 0.000
0.000 0.000 0.000
0.000 0.000 0.000
0.000 0.000 0.000
0.000 0.000 0.000
0.000 0.000 0.000
0.000 0.000 0.000
0.000 0.000 0.000
-0.595 -0.160 1.310
-0.603 -0.165 1.346
-0.597 -0.166 1.353
-0.598 -0.169 1.375
-0.592 -0.170 1.381
-0.588 -0.172 1.392
-0.583 -0.173 1.399
-0.576 -0.173 1.404
-0.567 -0.174 1.403
-0.557 -0.174 1.401
0.000 0.000 0.000
0.000 0.000 0.000
0.000 0.000 0.000
0.000 0.000 0.000
0.000 0.000 0.000
0.000 0.000 0.000
0.000 0.000 0.000
0.000 0.000 0.000
0.000 0.000 0.000
0.000 0.000 0.000
0.000 0.000 0.000
-0.519 -0.203 1.612
-0.511 -0.204 1.618
-0.504 -0.205 1.628
-0.496 -0.206 1.635
-0.486 -0.207 1.635
-0.476 -0.207 1.638
-0.475 -0.211 1.669
-0.465 -0.212 1.669
-0.453 -0.211 1.663
0.000 0.000 0.000
-0.608 -0.298 2.342
-0.592 -0.298 2.338
-0.578 -0.299 2.340
-0.561 -0.298 2.332
-0.546 -0.298 2.328
-0.532 -0.299 2.332
-0.518 -0.299 2.334
-0.503 -0.300 2.334
-0.490 -0.301 2.338
-0.472 -0.299 2.325
-0.459 -0.300 2.331
-0.445 -0.301 2.335
-0.432 -0.302 2.340
-0.419 -0.304 2.350
-0.405 -0.305 2.357
-0.395 -0.309 2.387
-0.409 -0.334 2.569
-0.370 -0.314 2.415
-0.345 -0.306 2.351
-0.330 -0.306 2.348
-0.315 -0.306 2.348
-0.301 -0.308 2.355
-0.285 -0.307 2.344
-0.271 -0.307 2.348
-0.257 -0.308 2.350
-0.242 -0.308 2.350
-0.227 -0.308 2.347
-0.212 -0.309 2.346
-0.198 -0.309 2.348
-0.184 -0.311 2.358
-0.169 -0.312 2.363
-0.154 -0.311 2.356
-0.139 -0.311 2.349
-0.124 -0.312 2.352
-0.110 -0.313 2.356
-0.095 -0.313 2.360
-0.080 -0.312 2.344
-0.065 -0.311 2.337
-0.051 -0.314 2.359
-0.036 -0.316 2.370
-0.021 -0.317 2.375
-0.007 -0.317 2.371
0.008 -0.318 2.374
0.023 -0.314 2.340
0.038 -0.315 2.347
0.053 -0.319 2.371
0.068 -0.320 2.380
0.083 -0.322 2.392
0.097 -0.320 2.374
0.112 -0.320 2.368
0.127 -0.321 2.375
0.143 -0.323 2.387
0.157 -0.322 2.377
0.173 -0.324 2.386
0.187 -0.323 2.380
0.202 -0.324 2.386
0.219 -0.327 2.402
0.235 -0.329 2.411
0.247 -0.326 2.389
0.263 -0.327 2.392
0.280 -0.329 2.409
0.295 -0.330 2.413
0.308 -0.329 2.398
0.323 -0.329 2.395
0.337 -0.328 2.390
0.354 -0.331 2.406
0.370 -0.332 2.409
0.382 -0.329 2.388
0.401 -0.333 2.412
0.416 -0.333 2.413
0.432 -0.335 2.419
0.447 -0.335 2.419
0.460 -0.334 2.407
0.478 -0.336 2.419
0.493 -0.336 2.419
0.510 -0.338 2.430
0.522 -0.336 2.413
0.539 -0.338 2.426
0.555 -0.339 2.427
0.570 -0.339 2.427
0.587 -0.341 2.436
0.600 -0.340 2.426
0.615 -0.340 2.426
0.632 -0.341 2.433
0.647 -0.342 2.432
0.662 -0.342 2.429
0.677 -0.342 2.430
0.693 -0.343 2.432
0.708 -0.343 2.432
0.723 -0.343 2.430
0.740 -0.345 2.437
0.756 -0.345 2.440
0.771 -0.346 2.440
0.784 -0.345 2.433
0.800 -0.346 2.434
0.815 -0.346 2.435
0.832 -0.347 2.438
0.847 -0.348 2.440
0.864 -0.349 2.443
0.880 -0.349 2.446
0.895 -0.350 2.446
0.911 -0.350 2.446
0.926 -0.351 2.446
0.940 -0.351 2.443
0.955 -0.351 2.443
0.972 -0.352 2.447
0.989 -0.353 2.451
1.005 -0.354 2.454
1.027 -0.356 2.468
1.045 -0.357 2.476
1.064 -0.359 2.483
1.082 -0.360 2.489
1.101 -0.362 2.496
1.126 -0.365 2.518
1.162 -0.372 2.562
0.000 0.000 0.000
1.254 -0.391 2.691
1.256 -0.387 2.660
0.000 0.000 0.000
1.289 -0.388 2.660
1.306 -0.389 2.660
1.322 -0.389 2.660
1.345 -0.391 2.671
1.299 -0.374 2.549
1.408 -0.401 2.729
1.425 -0.401 2.729
1.437 -0.400 2.721
1.464 -0.403 2.739
1.487 -0.405 2.750
1.506 -0.406 2.754
1.461 -0.390 2.641
1.479 -0.391 2.643
1.494 -0.391 2.641
1.508 -0.391 2.637
1.523 -0.391 2.634
1.535 -0.390 2.627
1.553 -0.391 2.630
1.574 -0.392 2.636
1.579 -0.390 2.618
1.599 -0.391 2.624
1.625 -0.394 2.640
1.635 -0.393 2.629
1.653 -0.394 2.632
1.673 -0.395 2.638
1.689 -0.395 2.637
1.704 -0.395 2.635
1.720 -0.396 2.635
1.737 -0.396 2.635
1.755 -0.397 2.638
1.777 -0.399 2.645
1.793 -0.399 2.645
1.808 -0.399 2.642
1.824 -0.399 2.642
1.838 -0.399 2.638
1.854 -0.400 2.638
1.871 -0.400 2.638
1.890 -0.401 2.642
1.914 -0.403 2.653
1.932 -0.404 2.655
1.940 -0.402 2.643
1.953 -0.402 2.639
1.963 -0.401 2.630
1.974 -0.401 2.623
1.984 -0.400 2.614
2.000 -0.400 2.614
2.008 -0.399 2.603
2.018 -0.398 2.596
2.028 -0.397 2.588
2.011 -0.391 2.545
1.998 -0.386 2.509
2.003 -0.384 2.496
2.010 -0.383 2.486
2.017 -0.382 2.475
2.007 -0.377 2.444
1.996 -0.373 2.412
2.008 -0.373 2.409
2.019 -0.372 2.404
2.009 -0.368 2.374
2.004 -0.365 2.352
2.005 -0.363 2.335
2.013 -0.362 2.328
2.005 -0.358 2.302
2.010 -0.357 2.291
2.009 -0.355 2.275
2.007 -0.352 2.256
2.014 -0.351 2.248
2.022 -0.351 2.242
2.013 -0.347 2.216
2.014 -0.345 2.202
2.003 -0.341 2.175
2.006 -0.340 2.164
2.015 -0.340 2.160
2.024 -0.339 2.155
2.023 -0.337 2.139
2.025 -0.336 2.128
2.007 -0.331 2.095
2.012 -0.330 2.087
2.021 -0.329 2.083
2.014 -0.326 2.062
2.025 -0.326 2.060
2.038 -0.327 2.060
2.046 -0.326 2.055
2.058 -0.327 2.055
0.000 0.000 0.000
0.000 0.000 0.000
0.000 0.000 0.000
0.000 0.000 0.000
0.000 0.000 0.000
0.000 0.000 0.000
0.000 0.000 0.000
0.000 0.000 0.000
0.000 0.000 0.000
0.000 0.000 0.000
0.000 0.000 0.000
0.000 0.000 0.000
0.000 0.000 0.000
0.000 0.000 0.000
0.000 0.000 0.000
0.000 0.000 0.000
0.000 0.000 0.000
-2.314 -0.275 2.605
-2.280 -0.273 2.585
-2.246 -0.271 2.564
-2.174 -0.265 2.500
0.000 0.000 0.000
-2.126 -0.263 2.481
-2.110 -0.264 2.481
0.000 0.000 0.000
0.000 0.000 0.000
0.000 0.000 0.000
0.000 0.000 0.000
0.000 0.000 0.000
0.000 0.000 0.000
0.000 0.000 0.000
-1.037 -0.140 1.296
-1.030 -0.140 1.297
0.000 0.000 0.000
0.000 0.000 0.000
0.000 0.000 0.000
0.000 0.000 0.000
0.000 0.000 0.000
0.000 0.000 0.000
0.000 0.000 0.000
0.000 0.000 0.000
-0.645 -0.096 0.875
-0.643 -0.096 0.879
-0.646 -0.098 0.892
-0.646 -0.099 0.900
-0.651 -0.100 0.914
-0.653 -0.102 0.925
-0.652 -0.103 0.933
-0.653 -0.104 0.942
-0.647 -0.104 0.942
-0.644 -0.105 0.946
-0.641 -0.105 0.951
-0.638 -0.106 0.955
-0.633 -0.106 0.957
-0.635 -0.108 0.969
-0.633 -0.109 0.975
-0.630 -0.109 0.980
-0.627 -0.110 0.985
-0.623 -0.111 0.989
-0.631 -0.113 1.012
-0.629 -0.114 1.019
-0.625 -0.115 1.023
-0.620 -0.115 1.024
-0.613 -0.115 1.023
0.000 0.000 0.000
0.000 0.000 0.000
-0.598 -0.117 1.031
0.000 0.000 0.000
0.000 0.000 0.000
0.000 0.000 0.000
0.000 0.000 0.000
0.000 0.000 0.000
0.000 0.000 0.000
0.000 0.000 0.000
0.000 0.000 0.000
0.000 0.000 0.000
0.000 0.000 0.000
0.000 0.000 0.000
0.000 0.000 0.000
0.000 0.000 0.000
